ply
format ascii 1.0
element vertex 1445
property float x
property float y
property float z
property uchar red
property uchar green
property uchar blue
end_header
57.5282 -9.27404 -1.96771 0 0 255
62.4672 -9.79712 10.7717 0 0 255
64.2932 -10.015 15.3009 0 0 255
61.659 -9.78302 8.59214 0 0 255
66.8017 -10.2642 21.886 0 0 255
58.5225 -9.56431 0.673219 0 0 255
-9.30159 -10.3115 29.7329 0 0 255
60.2371 -9.75845 5.15226 0 0 255
60.1877 -9.76595 5.22911 0 0 255
60.6335 -9.80817 6.12099 0 0 255
-0.373361 -10.4803 32.8163 0 0 255
57.4318 -9.6533 -2.15426 0 0 255
62.0334 -10.0334 9.61079 0 0 255
62.4285 -10.1134 10.8962 0 0 255
62.5436 -10.0689 10.7848 0 0 255
61.0698 -9.99114 7.01613 0 0 255
57.5258 -9.71755 -1.79696 0 0 255
58.5599 -9.84915 0.805602 0 0 255
62.0939 -10.268 9.99492 0 0 255
-16.3588 -10.3098 22.2753 0 0 255
49.6345 -9.29823 -21.0032 0 0 255
-8.19882 -10.6884 30.4879 0 0 255
3.40757 -10.8703 32.8174 0 0 255
3.40757 -10.8703 32.8174 0 0 255
50.4405 -9.6034 -20.2069 0 0 255
-51.073 -9.08018 -19.4227 0 0 255
-51.073 -9.08018 -19.4227 0 0 255
61.3915 -10.5682 8.06846 0 0 255
61.421 -10.5541 8.00008 0 0 255
62.0012 -10.5258 7.68707 0 0 255
60.2972 -10.5424 4.33366 0 0 255
-45.2766 -9.37517 -18.9541 0 0 255
-18.7786 -10.6213 19.8191 0 0 255
-13.8939 -10.8366 25.9423 0 0 255
60.0473 -10.6583 4.22668 0 0 255
60.0205 -10.6259 4.21536 0 0 255
65.2026 -10.9499 17.3284 0 0 255
-3.48077 -11.0948 32.4875 0 0 255
58.3112 -10.733 -0.957929 0 0 255
-2.08258 -11.407 32.8126 0 0 255
59.9924 -10.9273 3.20896 0 0 255
60.3191 -10.9469 4.14822 0 0 255
64.8978 -11.278 15.8985 0 0 255
57.5829 -10.8447 -2.42492 0 0 255
-18.2626 -11.1194 20.5276 0 0 255
61.318 -11.2433 6.48016 0 0 255
62.1528 -11.2598 8.88014 0 0 255
2.64542 -11.6262 33.0589 0 0 255
61.75 -11.3164 8.00169 0 0 255
59.9209 -11.33 2.97193 0 0 255
59.9209 -11.33 2.97193 0 0 255
-5.0743 -11.7012 32.2228 0 0 255
-76.0552 -10.1124 -17.9221 0 0 255
-11.9675 -11.6628 28.0469 0 0 255
15.3455 -11.7879 27.5097 0 0 255
65.6945 -11.8142 17.8388 0 0 255
65.6692 -11.8187 17.8848 0 0 255
58.7735 -11.4965 -0.31994 0 0 255
58.7472 -11.4939 -0.275551 0 0 255
65.5384 -11.8642 17.6309 0 0 255
-44.1273 -10.5624 -18.153 0 0 255
-44.1273 -10.5624 -18.153 0 0 255
4.79358 -11.9208 32.8672 0 0 255
61.4851 -11.6582 7.56685 0 0 255
63.5648 -11.8072 12.3105 0 0 255
61.5105 -11.7043 6.92114 0 0 255
62.237 -11.7777 8.84895 0 0 255
-5.20792 -11.9281 32.068 0 0 255
57.4263 -11.5368 -3.71166 0 0 255
-44.1534 -10.7711 -16.6746 0 0 255
-49.4422 -10.8072 -17.3285 0 0 255
-49.4422 -10.8072 -17.3285 0 0 255
-45.2513 -10.8846 -17.5248 0 0 255
-43.639 -10.8676 -17.1587 0 0 255
51.6809 -11.4349 -18.2994 0 0 255
60.6677 -11.8842 4.31639 0 0 255
62.4975 -12.0523 8.94388 0 0 255
-0.29028 -12.3004 33.1682 0 0 255
8.64759 -12.3615 31.702 0 0 255
26.4412 -12.2201 14.9647 0 0 255
26.4412 -12.2201 14.9647 0 0 255
57.1543 -12.1332 -4.33668 0 0 255
52.3836 -11.949 -15.6744 0 0 255
66.1984 -12.5499 18.7215 0 0 255
66.2373 -12.5456 18.7488 0 0 255
66.1097 -12.6206 18.4101 0 0 255
60.7439 -12.4228 3.90327 0 0 255
59.9913 -12.4043 2.02764 0 0 255
59.2656 -12.4931 0.420167 0 0 255
61.4851 -12.7667 5.86467 0 0 255
61.4233 -12.791 5.92213 0 0 255
62.3602 -12.8443 8.34953 0 0 255
-47.844 -12.0185 -16.3641 0 0 255
59.3479 -12.8961 -0.756659 0 0 255
61.4621 -13.2759 5.54009 0 0 255
58.0754 -13.3051 -3.62637 0 0 255
62.1232 -13.4792 6.71711 0 0 255
61.4541 -13.5891 5.67782 0 0 255
60.1031 -13.5851 1.41255 0 0 255
60.1174 -13.583 1.38613 0 0 255
61.3912 -13.6062 5.26698 0 0 255
61.3912 -13.6062 5.26698 0 0 255
4.08249 -13.5131 33.1219 0 0 255
-7.08393 -13.4566 31.6064 0 0 255
14.4131 -13.6614 28.658 0 0 255
58.0668 -13.9107 -2.70131 0 0 255
66.4284 -14.0926 17.9003 0 0 255
26.9843 -13.9021 16.766 0 0 255
-14.8711 -13.7126 25.273 0 0 255
-2.50241 -13.7896 33.1003 0 0 255
-2.45419 -13.8283 33.0641 0 0 255
58.3555 -13.9919 -3.6389 0 0 255
-2.18566 -13.8942 33.1274 0 0 255
61.4722 -14.3088 5.8134 0 0 255
61.578 -14.3417 4.93297 0 0 255
61.578 -14.3417 4.93297 0 0 255
67.479 -14.4196 20.3681 0 0 255
-51.0097 -13.6413 -14.5327 0 0 255
-5.95699 -13.9736 32.0058 0 0 255
60.8619 -14.7178 2.65974 0 0 255
-49.8817 -14.3018 -13.7814 0 0 255
62.2139 -15.2711 5.59014 0 0 255
-6.31352 -14.7359 31.9626 0 0 255
-5.74849 -14.7485 32.203 0 0 255
7.80327 -14.8198 32.3846 0 0 255
60.8901 -15.3887 2.51247 0 0 255
59.0745 -15.4492 -2.51656 0 0 255
60.6287 -15.42 1.51434 0 0 255
60.7011 -15.4053 1.46091 0 0 255
-18.64 -14.7675 24.2006 0 0 255
61.6041 -15.6323 3.63867 0 0 255
61.5902 -15.6365 3.65989 0 0 255
64.0035 -15.6226 10.6666 0 0 255
-18.4771 -14.9969 24.478 0 0 255
59.5387 -15.7788 -1.72107 0 0 255
64.1821 -15.7053 11.0414 0 0 255
-11.5162 -15.0419 28.8278 0 0 255
6.90491 -15.1326 32.4666 0 0 255
61.0673 -15.7985 2.19066 0 0 255
62.2046 -15.8149 5.34379 0 0 255
63.9335 -15.8318 9.64556 0 0 255
63.9449 -15.8314 9.64895 0 0 255
64.5555 -15.7992 11.2913 0 0 255
61.2225 -16.0025 2.69252 0 0 255
56.9541 -16.1636 -7.20735 0 0 255
66.5603 -15.9675 17.4422 0 0 255
66.5603 -15.9675 17.4422 0 0 255
-18.544 -15.2839 24.5012 0 0 255
8.3079 -15.3929 32.0589 0 0 255
12.0917 -15.4654 29.2149 0 0 255
61.9446 -16.2078 4.34018 0 0 255
64.3347 -16.0838 11.3421 0 0 255
8.41868 -15.5351 32.0789 0 0 255
63.2515 -16.2301 7.42283 0 0 255
61.5584 -16.3461 2.97619 0 0 255
-18.364 -15.5698 24.8645 0 0 255
59.3738 -16.5671 -2.05489 0 0 255
59.493 -16.7463 -2.5487 0 0 255
63.4858 -16.6458 6.7015 0 0 255
-25.5986 -15.8858 21.2801 0 0 255
67.9305 -16.6645 20.176 0 0 255
13.2961 -16.0849 29.4787 0 0 255
8.50727 -16.0653 31.9975 0 0 255
61.0811 -16.9843 0.753771 0 0 255
66.4966 -16.8134 16.2809 0 0 255
67.6723 -16.7784 19.241 0 0 255
-1.81072 -16.0447 33.2133 0 0 255
8.63498 -16.2286 31.9508 0 0 255
66.3799 -17.1118 15.7851 0 0 255
8.47212 -16.2792 32.0091 0 0 255
8.47212 -16.2792 32.0091 0 0 255
-24.4507 -16.3567 22.1252 0 0 255
4.95873 -16.4279 33.0467 0 0 255
60.7498 -17.5577 -0.0889724 0 0 255
-43.8092 -17.024 -11.0378 0 0 255
66.5097 -17.4038 15.5426 0 0 255
-9.62438 -16.4144 30.0493 0 0 255
56.3642 -18.1404 -11.8485 0 0 255
56.3005 -18.1349 -11.7925 0 0 255
61.9749 -17.8632 2.84695 0 0 255
-1.58461 -16.6947 33.2115 0 0 255
60.1723 -18.069 -2.48655 0 0 255
-17.5951 -16.7829 26.1888 0 0 255
-12.708 -16.7994 27.8075 0 0 255
20.2029 -17.1656 25.0141 0 0 255
66.6067 -17.9538 15.3481 0 0 255
66.0413 -17.9387 16.302 0 0 255
-25.7687 -17.0577 21.486 0 0 255
60.0406 -18.4174 -2.17931 0 0 255
60.2792 -18.394 -2.51372 0 0 255
17.613 -17.3879 25.5276 0 0 255
-48.9541 -17.9303 -9.84681 0 0 255
-47.0409 -17.9481 -10.1061 0 0 255
65.3518 -18.3489 11.6168 0 0 255
18.8357 -17.5985 25.5578 0 0 255
2.82018 -17.2953 33.2265 0 0 255
61.2174 -18.7935 1.29568 0 0 255
67.4364 -18.4765 18.5399 0 0 255
-24.0995 -17.5148 23.2701 0 0 255
65.0903 -18.7465 10.6643 0 0 255
-10.9025 -17.6018 29.1703 0 0 255
-10.9164 -17.6094 29.1904 0 0 255
61.9519 -19.0711 2.0816 0 0 255
61.943 -19.0705 2.13383 0 0 255
-24.2435 -17.7294 22.9442 0 0 255
61.423 -19.2093 0.629476 0 0 255
-11.4143 -17.7456 28.6867 0 0 255
62.1687 -19.371 1.53576 0 0 255
62.1252 -19.3637 1.61198 0 0 255
62.0539 -19.3421 1.74661 0 0 255
61.7597 -19.6948 1.31126 0 0 255
-10.1736 -18.1059 29.5212 0 0 255
-10.6045 -18.3844 29.1788 0 0 255
60.2815 -20.3327 -3.73921 0 0 255
13.3021 -18.6452 28.369 0 0 255
64.4922 -19.9939 9.04806 0 0 255
5.22202 -18.5451 32.5883 0 0 255
25.0176 -19.2149 22.7314 0 0 255
-23.1965 -18.7791 24.5679 0 0 255
61.3986 -20.6306 -0.432449 0 0 255
-2.90433 -18.6497 32.7838 0 0 255
-52.8396 -20.1812 -7.55297 0 0 255
62.3456 -20.7954 1.06094 0 0 255
-24.0125 -19.2287 22.256 0 0 255
64.8227 -20.8726 8.77491 0 0 255
63.7629 -21.1022 5.17232 0 0 255
-6.70168 -19.2784 31.35 0 0 255
-6.73987 -19.2434 31.3759 0 0 255
10.3023 -19.428 31.6626 0 0 255
58.836 -21.8079 -6.97433 0 0 255
-16.465 -19.4746 27.7496 0 0 255
-5.23199 -19.4792 31.8443 0 0 255
-51.7632 -21.2273 -6.52066 0 0 255
-51.7632 -21.2273 -6.52066 0 0 255
-21.9275 -19.848 25.743 0 0 255
59.8449 -22.3005 -5.7692 0 0 255
-1.72887 -19.7337 32.5919 0 0 255
4.32583 -19.7633 32.471 0 0 255
61.515 -22.1396 -0.98691 0 0 255
2.4931 -19.984 32.643 0 0 255
-14.6892 -20.0913 29.1561 0 0 255
21.5621 -20.6468 24.4527 0 0 255
-11.7779 -20.144 30.1189 0 0 255
-11.774 -20.1569 30.1325 0 0 255
66.8168 -21.8995 14.053 0 0 255
-14.4656 -20.2259 29.3104 0 0 255
2.14759 -20.2803 32.5338 0 0 255
60.2415 -23.084 -5.84149 0 0 255
60.1088 -23.0694 -5.16164 0 0 255
-20.8792 -20.5089 26.4103 0 0 255
-23.5104 -20.8073 22.0392 0 0 255
21.5747 -21.0363 25.0029 0 0 255
61.504 -23.136 -1.89312 0 0 255
25.0766 -21.2412 24.8002 0 0 255
67.4949 -22.6823 13.9631 0 0 255
-21.4183 -21.0179 27.0909 0 0 255
14.9031 -21.2332 29.5999 0 0 255
0.778726 -20.9172 32.4069 0 0 255
-13.3445 -21.0089 29.9642 0 0 255
-13.3448 -21.0139 29.9788 0 0 255
8.60579 -21.1435 30.8583 0 0 255
-8.85542 -21.1077 31.1026 0 0 255
-12.1515 -21.1497 31.057 0 0 255
62.15 -24.1554 -1.36724 0 0 255
63.5156 -24.1254 2.40842 0 0 255
63.8227 -24.1341 2.12528 0 0 255
4.26615 -21.4878 31.896 0 0 255
-13.3809 -21.5137 29.7702 0 0 255
17.615 -21.9477 27.5615 0 0 255
67.868 -23.5447 15.9318 0 0 255
65.8204 -23.0255 23.4058 0 0 255
-4.23102 -21.6903 31.5362 0 0 255
-19.6155 -21.9503 27.676 0 0 255
-10.9117 -21.8709 31.688 0 0 255
-10.9117 -21.8709 31.688 0 0 255
23.1502 -22.6507 26.6268 0 0 255
-18.787 -22.2181 28.1681 0 0 255
-18.5605 -22.2915 27.9501 0 0 255
7.42 -22.3206 31.3467 0 0 255
64.4764 -25.0799 3.90499 0 0 255
-38.92 -24.6143 -3.01922 0 0 255
67.1806 -24.7775 11.6368 0 0 255
-50.0303 -24.8055 -2.52981 0 0 255
-21.5089 -22.5965 28.4879 0 0 255
63.3191 -25.7008 1.83419 0 0 255
23.1421 -23.274 27.0519 0 0 255
1.6895 -22.6708 32.0313 0 0 255
66.2306 -24.4741 22.2395 0 0 255
66.3351 -24.3333 22.4732 0 0 255
65.196 -25.8329 5.66729 0 0 255
-15.7131 -22.9931 28.7699 0 0 255
-4.15693 -22.7887 32.5837 0 0 255
64.7402 -26.2633 3.63885 0 0 255
20.9497 -23.7248 27.8466 0 0 255
-19.2125 -23.4201 29.4304 0 0 255
-10.0741 -23.2577 31.9344 0 0 255
-10.0663 -23.2564 31.9179 0 0 255
62.594 -27.0351 -2.47455 0 0 255
67.6641 -25.8396 13.6601 0 0 255
64.2586 -26.8941 2.14971 0 0 255
4.47545 -23.5035 32.8361 0 0 255
-11.6236 -23.6304 30.5286 0 0 255
67.9114 -26.3081 12.0052 0 0 255
-17.7433 -23.7989 29.8126 0 0 255
-0.928766 -23.716 33.4085 0 0 255
67.9123 -26.6554 11.8165 0 0 255
43.697 -27.4841 -2.77456 0 0 255
-39.1589 -26.5378 -0.696225 0 0 255
-40.4028 -26.8386 -0.990017 0 0 255
-17.9722 -24.2392 30.172 0 0 255
64.4466 -27.6417 4.3841 0 0 255
65.1352 -27.7414 3.37359 0 0 255
-18.8945 -24.6602 28.52 0 0 255
-18.6301 -24.656 28.8724 0 0 255
-6.85009 -24.4051 32.5201 0 0 255
63.8886 -28.5684 -0.363079 0 0 255
66.8385 -27.6765 9.92959 0 0 255
69.7188 -27.119 16.3843 0 0 255
70.0382 -27.1763 16.4013 0 0 255
68.8437 -27.2139 16.1594 0 0 255
-3.82249 -24.5531 33.5166 0 0 255
68.7998 -27.6152 12.9039 0 0 255
-15.9248 -24.7788 30.9157 0 0 255
-6.77121 -24.7736 32.3608 0 0 255
67.6469 -28.0515 9.59317 0 0 255
66.3929 -28.7203 4.58707 0 0 255
64.4183 -29.2598 0.076028 0 0 255
-7.52516 -25.0957 31.9686 0 0 255
64.2837 -29.5199 0.334125 0 0 255
5.87289 -25.3277 33.3004 0 0 255
6.0378 -25.4801 33.2386 0 0 255
68.9391 -28.5468 14.1132 0 0 255
68.9391 -28.5468 14.1132 0 0 255
69.8419 -28.7874 14.7467 0 0 255
64.7816 -30.3012 0.641906 0 0 255
15.5484 -26.3319 31.2493 0 0 255
69.821 -29.1029 14.922 0 0 255
18.7139 -26.4724 30.8063 0 0 255
69.8025 -29.1295 14.5536 0 0 255
-23.2755 -27.4868 19.1492 0 0 255
-0.178349 -26.1774 33.0489 0 0 255
67.1409 -30.1219 6.83084 0 0 255
-4.16518 -26.2832 32.5583 0 0 255
67.1433 -30.2474 7.26386 0 0 255
70.3822 -29.774 14.8125 0 0 255
67.9678 -30.5711 9.51121 0 0 255
18.3843 -27.1515 31.8164 0 0 255
68.6262 -30.6066 10.4204 0 0 255
70.3189 -30.1557 14.5684 0 0 255
70.1791 -30.1357 14.7794 0 0 255
17.0231 -27.5111 31.967 0 0 255
1.22198 -27.2178 32.6975 0 0 255
68.3254 -31.1006 9.69325 0 0 255
-9.0411 -27.2697 33.3355 0 0 255
10.385 -27.6686 32.7119 0 0 255
69.2475 -31.2467 11.832 0 0 255
15.9421 -27.8797 32.1457 0 0 255
11.8932 -27.8001 32.5485 0 0 255
-8.9599 -27.6452 33.2101 0 0 255
66.3772 -32.4761 5.27727 0 0 255
15.3505 -28.3794 32.2306 0 0 255
66.3839 -32.7922 5.03244 0 0 255
68.4605 -32.0067 11.8977 0 0 255
-20.4786 -29.2815 22.6715 0 0 255
-20.4736 -29.257 22.6969 0 0 255
-8.54346 -27.9382 33.8345 0 0 255
-3.53738 -28.0348 33.6798 0 0 255
15.9564 -28.5822 31.4928 0 0 255
-9.03728 -28.0156 33.9439 0 0 255
-41.9683 -31.7795 3.63833 0 0 255
-47.9555 -31.7484 4.90878 0 0 255
-8.51465 -28.1423 34.0658 0 0 255
67.4142 -33.3014 5.45248 0 0 255
70.6668 -32.2525 14.0334 0 0 255
67.3845 -33.4704 5.13419 0 0 255
-10.7653 -28.4462 33.5676 0 0 255
12.3463 -28.8497 33.6563 0 0 255
67.389 -33.7248 5.05478 0 0 255
69.8556 -33.044 11.4383 0 0 255
6.46917 -28.8494 34.049 0 0 255
-11.329 -28.8125 33.0205 0 0 255
11.3613 -28.9264 34.0035 0 0 255
-42.5055 -32.7026 5.48116 0 0 255
-42.5055 -32.7026 5.48116 0 0 255
69.9601 -33.3448 12.256 0 0 255
-2.98908 -29.0265 34.7884 0 0 255
-2.98908 -29.0265 34.7884 0 0 255
-10.6193 -29.3072 32.9124 0 0 255
67.5019 -34.8132 4.64954 0 0 255
5.16529 -29.4163 34.7565 0 0 255
-1.08328 -29.5174 35.1539 0 0 255
-41.7941 -33.5306 6.66848 0 0 255
1.21189 -29.7189 35.4127 0 0 255
7.4888 -29.8744 35.0566 0 0 255
3.97053 -30.0819 35.5632 0 0 255
0.479617 -30.1268 35.7577 0 0 255
4.09736 -30.2999 35.4685 0 0 255
-20.9088 -32.4041 19.7923 0 0 255
13.0005 -31.2874 30.8824 0 0 255
4.50706 -30.5728 35.1791 0 0 255
-9.98272 -30.9973 31.5868 0 0 255
12.4739 -31.321 31.3789 0 0 255
17.1013 -32.0617 27.4332 0 0 255
0.893992 -30.9787 35.1017 0 0 255
-11.1581 -31.6387 30.4322 0 0 255
3.91823 -31.1899 34.5875 0 0 255
-7.49679 -31.855 32.0098 0 0 255
-19.3199 -33.6045 20.3073 0 0 255
2.02749 -32.205 33.7245 0 0 255
7.54434 -32.5349 33.3738 0 0 255
2.121 -32.9119 33.2071 0 0 255
45.3383 -38.0573 8.69327 0 0 255
48.6278 -38.1229 8.86773 0 0 255
45.7501 -38.1408 8.76805 0 0 255
43.4204 -38.4926 9.3484 0 0 255
7.17122 -33.8548 31.8814 0 0 255
-8.46049 -34.5964 28.9735 0 0 255
-64.6107 -37.7697 12.3214 0 0 255
12.5824 -35.6582 26.9389 0 0 255
5.87284 -35.083 30.8786 0 0 255
11.796 -37.5108 26.3767 0 0 255
63.9926 -41.4504 12.928 0 0 255
11.2653 -37.8874 26.0191 0 0 255
0.302444 -37.5377 29.0445 0 0 255
61.8795 -42.1034 13.861 0 0 255
-13.4156 -38.2462 25.094 0 0 255
-11.1499 -38.4699 24.7414 0 0 255
-11.3794 -38.6319 24.6092 0 0 255
3.1651 -38.4489 28.5328 0 0 255
52.7036 -42.6998 14.4973 0 0 255
50.9916 -44.4098 17.1243 0 0 255
61.1237 -45.3162 17.2527 0 0 255
61.1237 -45.3162 17.2527 0 0 255
-3.11228 -41.8994 27.1404 0 0 255
55.6164 -46.671 18.9231 0 0 255
-15.0157 -44.3847 23.7193 0 0 255
31.3102 -47.2016 18.9298 0 0 255
-33.7642 -46.2166 19.9327 0 0 255
-31.4013 -46.2214 20.3878 0 0 255
19.0023 -46.4142 22.4048 0 0 255
-3.28623 -45.4787 28.3997 0 0 255
65.5629 -49.0715 22.0059 0 0 255
55.5675 -48.9692 21.7551 0 0 255
31.5646 -48.8005 20.7971 0 0 255
57.6614 -49.2352 22.1505 0 0 255
59.0499 -49.3239 21.9699 0 0 255
-9.69833 -47.3775 24.168 0 0 255
30.8391 -49.1536 21.1859 0 0 255
30.8391 -49.1536 21.1859 0 0 255
-27.4511 -48.0354 21.8982 0 0 255
62.4235 -50.6115 23.4767 0 0 255
27.5927 -50.0906 22.3915 0 0 255
27.2035 -50.2405 22.506 0 0 255
27.5948 -50.9317 23.3934 0 0 255
27.0958 -50.966 23.8421 0 0 255
27.228 -51.1191 23.438 0 0 255
-24.2946 -50.349 24.5302 0 0 255
-26.2369 -50.5417 24.7625 0 0 255
57.1226 -52.4747 25.5396 0 0 255
30.3792 -51.8986 24.9586 0 0 255
-34.947 -51.5256 25.3149 0 0 255
-20.7912 -51.4996 25.6848 0 0 255
-33.6682 -51.5368 25.8594 0 0 255
51.3177 -53.0456 26.6895 0 0 255
-29.9744 -51.7695 26.0013 0 0 255
-22.4198 -52.0317 26.1545 0 0 255
25.0598 -53.3072 25.9663 0 0 255
51.3486 -53.8822 26.892 0 0 255
-25.6126 -52.4753 26.687 0 0 255
24.8007 -53.626 26.3292 0 0 255
-32.2488 -52.6687 26.7655 0 0 255
49.1173 -54.5357 26.4996 0 0 255
-20.0035 -52.8926 27.2332 0 0 255
25.1918 -53.893 27.4997 0 0 255
32.4238 -54.6981 27.7142 0 0 255
-35.7845 -53.5125 28.009 0 0 255
-24.8842 -53.6682 27.8893 0 0 255
-12.8143 -53.9732 28.1562 0 0 255
33.6033 -55.3541 28.0266 0 0 255
51.8509 -55.8016 29.3708 0 0 255
-25.6872 -54.5322 29.2949 0 0 255
57.2972 -56.3471 30.0843 0 0 255
-20.8397 -54.786 29.0504 0 0 255
-46.2384 -54.988 29.3458 0 0 255
-17.2517 -54.9931 29.1381 0 0 255
19.3045 -55.834 28.943 0 0 255
-19.8291 -55.1759 29.5216 0 0 255
-1.34919 -55.6716 29.3414 0 0 255
-16.259 -55.492 29.6784 0 0 255
47.0995 -57.3816 29.6801 0 0 255
-5.08389 -55.8543 29.8401 0 0 255
18.7902 -56.5279 29.6892 0 0 255
-25.9608 -55.7614 29.8848 0 0 255
17.372 -56.3733 30.1281 0 0 255
-11.0766 -55.8467 29.9021 0 0 255
-5.11864 -56.0473 29.9905 0 0 255
1.57255 -56.2401 29.9885 0 0 255
-29.6391 -55.7602 30.617 0 0 255
2.62273 -56.3483 29.9016 0 0 255
-15.7301 -55.9253 30.3515 0 0 255
-1.20112 -56.1361 30.3953 0 0 255
16.2334 -56.7517 29.8994 0 0 255
8.96118 -56.5944 30.0638 0 0 255
-7.93609 -56.1854 30.3493 0 0 255
41.9386 -57.4931 31.3222 0 0 255
36.33 -57.5673 30.8753 0 0 255
-6.65507 -56.5603 30.7271 0 0 255
-6.64663 -56.5774 30.6807 0 0 255
5.05862 -56.8464 31.3066 0 0 255
24.7135 -57.4223 31.3282 0 0 255
22.8534 -57.3693 31.3504 0 0 255
-7.37739 -56.7745 30.9804 0 0 255
0.203917 -57.0132 30.7965 0 0 255
9.05241 -57.1162 31.1259 0 0 255
9.13955 -57.2827 30.7775 0 0 255
9.13955 -57.2827 30.7775 0 0 255
-11.5431 -56.7958 31.0484 0 0 255
41.4045 -58.3506 31.1398 0 0 255
1.16065 -57.2793 30.6748 0 0 255
49.2895 -58.2411 32.1458 0 0 255
-11.7584 -56.9909 31.2551 0 0 255
-0.798929 -57.3616 31.0912 0 0 255
-11.6151 -57.0552 31.5369 0 0 255
-11.613 -57.1129 31.3825 0 0 255
19.7969 -58.1965 32.2827 0 0 255
-4.8574 -57.7273 32.5368 0 0 255
21.3143 -58.617 32.163 0 0 255
-5.13905 -58.0213 32.3401 0 0 255
42.7156 -59.5914 32.4369 0 0 255
42.7156 -59.5914 32.4369 0 0 255
-73.3146 52.6394 -12.7687 0 0 255
29.2031 75.791 -70.723 0 0 255
-67.6241 54.1896 -16.9967 0 0 255
-68.1739 53.6405 -16.4566 0 0 255
51.1843 80.5436 -82.1814 0 0 255
-48.1392 57.9318 -28.2546 0 0 255
-48.1493 57.9727 -28.3587 0 0 255
-31.3521 61.507 -37.7784 0 0 255
65.2686 83.6451 -89.4674 0 0 255
65.3868 83.7436 -89.6453 0 0 255
-50.014 57.3604 -26.9107 0 0 255
-62.5908 54.7868 -20.1206 0 0 255
-63.968 54.3933 -19.2681 0 0 255
-63.8493 54.1518 -18.6563 0 0 255
3.21857 69.1171 -57.2 0 0 255
3.21857 69.1171 -57.2 0 0 255
31.8486 75.8095 -72.9271 0 0 255
-46.001 58.0959 -29.926 0 0 255
-38.2786 59.6256 -34.0181 0 0 255
-71.7567 52.1168 -13.973 0 0 255
-31.7772 60.8059 -38.0393 0 0 255
-31.732 60.7651 -38.1005 0 0 255
33.7208 75.6066 -73.9714 0 0 255
-59.6078 54.7455 -22.3462 0 0 255
34.4175 75.5108 -74.7325 0 0 255
-66.1038 53.2138 -18.7253 0 0 255
55.0631 79.9916 -85.273 0 0 255
61.3226 81.4037 -88.6874 0 0 255
64.6864 82.0656 -90.2047 0 0 255
51.9808 79.0362 -83.8858 0 0 255
-36.6247 59.047 -36.0891 0 0 255
53.4033 49.2354 -10.3028 0 0 255
-27.1371 60.9741 -41.4396 0 0 255
33.0474 74.4066 -74.2195 0 0 255
30.782 74.0317 -73.6955 0 0 255
-60.4531 53.8086 -22.3402 0 0 255
62.9435 80.9214 -90.1489 0 0 255
-60.8662 53.7784 -22.5657 0 0 255
10.2023 68.9194 -62.4947 0 0 255
-21.2102 61.5312 -44.9607 0 0 255
49.4347 51.6185 -18.3756 0 0 255
31.2165 73.3308 -74.4063 0 0 255
30.3285 73.0867 -74.2548 0 0 255
55.7455 46.5074 -6.22736 0 0 255
32.8086 73.2008 -75.2017 0 0 255
26.6265 71.8436 -72.28 0 0 255
31.0309 72.5709 -73.8948 0 0 255
53.2024 48.4944 -11.5434 0 0 255
62.7743 79.7534 -91.2015 0 0 255
-61.3614 52.6628 -22.5147 0 0 255
-60.1243 52.9311 -23.3959 0 0 255
33.3775 73.0963 -76.1223 0 0 255
-59.4412 53.1107 -24.0418 0 0 255
-3.29276 64.8556 -56.1212 0 0 255
40.4409 74.6252 -80.0783 0 0 255
-59.1114 53.0124 -24.1759 0 0 255
41.7499 74.5133 -79.7009 0 0 255
42.2042 74.9072 -81.0419 0 0 255
49.2521 51.0536 -19.4619 0 0 255
65.0244 79.8836 -93.0105 0 0 255
71.1349 80.8865 -95.3916 0 0 255
-60.4387 52.106 -22.4222 0 0 255
-77.0689 49.0374 -13.4739 0 0 255
-77.0689 49.0374 -13.4739 0 0 255
-3.0731 64.2589 -55.8335 0 0 255
26.5649 70.9829 -72.3919 0 0 255
42.7929 74.6494 -81.568 0 0 255
70.3212 80.7552 -95.7699 0 0 255
22.8396 70.2008 -71.0305 0 0 255
53.9893 47.54 -11.3678 0 0 255
-123.367 75.9574 -80.8434 0 0 255
-48.1045 54.8084 -30.9467 0 0 255
-48.0055 54.5582 -30.2938 0 0 255
50.6412 35.9806 18.1175 0 0 255
50.6228 35.9625 18.1338 0 0 255
52.4374 48.2133 -13.7203 0 0 255
-0.462426 64.5664 -57.934 0 0 255
-0.441723 64.5548 -57.9551 0 0 255
51.2675 48.8124 -16.4046 0 0 255
50.4581 36.3467 15.7673 0 0 255
50.7952 36.5509 15.2755 0 0 255
50.9275 35.8383 16.9377 0 0 255
-75.1943 48.5944 -15.2129 0 0 255
70.0915 78.8706 -96.7677 0 0 255
68.3762 78.3169 -95.8963 0 0 255
15.4528 67.0361 -68.6493 0 0 255
51.3109 35.2411 16.903 0 0 255
51.3293 35.2384 16.8819 0 0 255
14.999 66.6532 -68.7394 0 0 255
34.7921 62.8178 -57.8474 0 0 255
-60.9891 50.502 -24.5942 0 0 255
69.9523 77.9935 -97.5263 0 0 255
-11.4348 60.4934 -53.9438 0 0 255
-61.0486 50.2641 -25.131 0 0 255
56.2323 43.7189 -7.58374 0 0 255
-77.0812 46.8416 -15.015 0 0 255
53.2127 32.3683 22.0235 0 0 255
-72.2067 47.5922 -18.4409 0 0 255
66.5009 77.3716 -99.7868 0 0 255
-44.9343 52.6117 -35.4457 0 0 255
51.9365 72.6217 -89.9757 0 0 255
57.7053 74.0667 -93.639 0 0 255
-7.16149 59.8036 -58.0185 0 0 255
-7.16855 59.808 -57.9998 0 0 255
-34.6297 54.1906 -41.9712 0 0 255
-30.7498 54.879 -44.4389 0 0 255
-30.7764 54.8805 -44.4097 0 0 255
51.3142 33.5701 15.8089 0 0 255
-10.0758 58.614 -56.4353 0 0 255
-10.0758 58.614 -56.4353 0 0 255
-46.2583 51.536 -35.7701 0 0 255
-46.2583 51.536 -35.7701 0 0 255
-69.8627 47.0469 -21.7144 0 0 255
-69.1464 47.1729 -22.2807 0 0 255
51.0837 33.4079 15.1291 0 0 255
50.6128 71.0107 -90.5287 0 0 255
50.5588 70.9516 -90.3456 0 0 255
-69.4184 46.8302 -21.9588 0 0 255
-107.874 61.4608 -60.1146 0 0 255
-5.24831 59.0971 -59.3758 0 0 255
53.6524 31.3667 19.6865 0 0 255
-100.849 56.8572 -50.3295 0 0 255
54.3589 42.6274 -13.0802 0 0 255
48.519 69.2717 -90.1457 0 0 255
-106.091 59.5379 -58.8848 0 0 255
52.8681 31.3609 17.5926 0 0 255
55.9498 28.7944 24.179 0 0 255
-78.7295 43.6347 -17.2883 0 0 255
-12.6001 56.1135 -57.1181 0 0 255
-12.6001 56.1135 -57.1181 0 0 255
56.613 28.2582 25.6027 0 0 255
51.8044 43.6851 -18.9066 0 0 255
51.5184 43.7414 -19.8291 0 0 255
-46.5748 49.3476 -37.2992 0 0 255
-37.3378 50.9981 -43.0062 0 0 255
-31.3876 52.0584 -46.188 0 0 255
-58.0455 47.0187 -30.5213 0 0 255
-52.2366 48.197 -34.3002 0 0 255
51.8883 31.203 15.3843 0 0 255
51.6402 31.0637 15.1942 0 0 255
53.6116 29.6932 18.5913 0 0 255
55.9787 28.2429 22.9935 0 0 255
-13.9632 54.5768 -57.5491 0 0 255
-13.9744 54.5387 -57.4653 0 0 255
-4.89887 55.8991 -61.9482 0 0 255
-4.89887 55.8991 -61.9482 0 0 255
-94.749 51.01 -43.0551 0 0 255
-72.7937 43.5557 -22.4046 0 0 255
-45.1791 48.215 -39.3622 0 0 255
49.9526 43.0118 -23.6176 0 0 255
33.6069 62.8322 -85.7579 0 0 255
50.4524 30.9347 11.6974 0 0 255
-13.5841 53.5083 -58.7395 0 0 255
53.2143 28.9789 16.8966 0 0 255
53.2143 28.9789 16.8966 0 0 255
56.7984 26.9075 23.8142 0 0 255
53.477 39.7831 -16.3766 0 0 255
26.4516 60.988 -82.3972 0 0 255
23.8823 60.2291 -81.0662 0 0 255
-32.5621 49.1141 -47.87 0 0 255
59.0383 24.7334 28.9394 0 0 255
-6.73968 53.5501 -63.2507 0 0 255
59.6313 24.035 30.0912 0 0 255
-4.90037 53.755 -64.6296 0 0 255
59.5352 24.1604 29.5388 0 0 255
52.2925 64.5286 -97.6835 0 0 255
52.4007 64.6395 -97.9035 0 0 255
59.6933 23.7091 30.1415 0 0 255
59.7548 23.7421 30.0445 0 0 255
54.0955 38.7161 -17.1304 0 0 255
53.215 27.9979 15.9796 0 0 255
59.7129 23.5728 29.1058 0 0 255
27.9246 58.8403 -84.8579 0 0 255
60.499 22.8438 30.9201 0 0 255
-38.0317 45.9463 -46.1785 0 0 255
-24.8329 48.3618 -54.8174 0 0 255
50.8771 28.5882 10.5774 0 0 255
-61.6585 41.7925 -32.4109 0 0 255
50.7156 28.4008 10.1171 0 0 255
51.0288 28.1735 10.6226 0 0 255
55.8699 25.1889 20.6486 0 0 255
60.0297 22.4236 28.8286 0 0 255
60.3827 22.2185 29.5162 0 0 255
55.9139 24.8709 20.3891 0 0 255
55.9139 24.8709 20.3891 0 0 255
-97.0127 47.4436 -51.0405 0 0 255
-44.5712 43.6867 -43.0746 0 0 255
53.6273 26.1749 15.1613 0 0 255
-23.3113 47.409 -57.0327 0 0 255
23.0593 55.7184 -84.6062 0 0 255
56.4266 24.2223 20.8556 0 0 255
-23.1105 47.0288 -57.3653 0 0 255
-33.0601 45.3114 -51.3265 0 0 255
53.5338 25.8415 14.9758 0 0 255
53.9468 25.4705 15.9179 0 0 255
-34.2824 44.7279 -50.5973 0 0 255
-54.5609 41.4734 -39.3793 0 0 255
-58.877 40.5209 -36.3312 0 0 255
-58.8638 40.5391 -36.3403 0 0 255
-43.7202 42.9346 -45.5839 0 0 255
61.339 20.6899 30.2745 0 0 255
51.4181 26.2651 10.3533 0 0 255
54.4182 24.3501 16.5829 0 0 255
50.3875 36.7035 -27.2963 0 0 255
51.5668 35.9556 -24.7793 0 0 255
53.3352 34.4056 -20.7127 0 0 255
-52.931 40.1596 -40.9677 0 0 255
58.4649 21.4775 23.8307 0 0 255
-127.037 55.0316 -87.99 0 0 255
53.9883 34.2147 -21.5622 0 0 255
53.9883 34.2147 -21.5622 0 0 255
-90.186 40.9519 -42.491 0 0 255
49.1833 36.0836 -30.7183 0 0 255
49.4155 25.9669 5.0333 0 0 255
-43.8763 40.5469 -47.5448 0 0 255
-43.8448 40.5428 -47.5792 0 0 255
-4.46009 46.7657 -71.4578 0 0 255
-47.6033 39.7861 -45.2001 0 0 255
50.0715 25.4047 6.2131 0 0 255
-59.6838 37.8581 -37.9922 0 0 255
-59.6426 37.8211 -37.92 0 0 255
-58.9119 37.766 -37.6898 0 0 255
-44.4888 39.8297 -47.3822 0 0 255
53.3348 32.7034 -22.2607 0 0 255
-75.2408 34.8782 -28.9887 0 0 255
49.4802 25.1521 4.37558 0 0 255
52.0367 23.7953 9.80017 0 0 255
-74.2206 34.6867 -30.0526 0 0 255
-21.8123 42.456 -62.3055 0 0 255
52.0867 23.328 9.97979 0 0 255
-69.8836 35.4565 -33.4433 0 0 255
-74.2486 34.2661 -30.2244 0 0 255
-74.3009 34.3032 -30.3766 0 0 255
-70.6106 34.9315 -33.2887 0 0 255
-69.2815 34.4272 -33.9837 0 0 255
54.7351 30.4367 -20.5405 0 0 255
60.9825 17.7622 27.6126 0 0 255
60.8587 17.7086 27.7151 0 0 255
51.1544 22.8403 7.19049 0 0 255
55.6741 29.5796 -18.6039 0 0 255
-28.2326 39.8322 -59.7954 0 0 255
-74.4767 33.2977 -31.3755 0 0 255
-23.765 40.5793 -62.7626 0 0 255
52.1344 31.4664 -26.9704 0 0 255
55.2374 29.6085 -19.621 0 0 255
55.8525 29.2056 -18.5394 0 0 255
-59.1654 33.5654 -35.8371 0 0 255
-59.3937 33.1347 -35.4933 0 0 255
55.8576 28.7883 -18.7253 0 0 255
-35.2991 38.0448 -55.897 0 0 255
-35.3227 38.0968 -56.0884 0 0 255
-121.785 45.3294 -77.9203 0 0 255
-29.4655 38.8291 -60.6879 0 0 255
-7.16876 42.0085 -74.1354 0 0 255
58.461 17.9051 21.9823 0 0 255
-7.85434 41.2923 -74.2675 0 0 255
-77.3001 31.3298 -31.2177 0 0 255
53.7377 19.9371 11.7741 0 0 255
53.7609 19.9442 11.7405 0 0 255
53.749 19.946 11.7436 0 0 255
-57.9834 33.5961 -43.0736 0 0 255
-45.0891 35.7783 -53.5578 0 0 255
-55.9659 33.5457 -44.7292 0 0 255
20.1789 40.3011 -74.3599 0 0 255
-61.0301 32.8612 -42.3341 0 0 255
-4.94408 39.7067 -73.2508 0 0 255
58.8309 16.9836 21.7772 0 0 255
54.3941 19.1284 12.5739 0 0 255
57.3559 17.7524 18.3038 0 0 255
59.5605 16.4722 23.0534 0 0 255
59.4722 16.4261 23.154 0 0 255
51.3374 20.5577 4.79326 0 0 255
51.2367 20.4931 5.02668 0 0 255
58.8783 16.6009 21.445 0 0 255
57.2667 17.3035 18.4042 0 0 255
50.9673 20.4095 4.8082 0 0 255
-28.3805 35.713 -63.9065 0 0 255
-3.43501 37.1417 -70.3693 0 0 255
-52.476 32.4851 -48.4652 0 0 255
50.4931 20.0933 3.14932 0 0 255
54.608 17.9584 12.5523 0 0 255
-71.7954 30.0425 -37.006 0 0 255
60.3158 15.2383 24.0657 0 0 255
60.2368 15.2091 24.1127 0 0 255
53.4207 18.4825 9.3855 0 0 255
60.5839 14.9451 24.8399 0 0 255
60.5839 14.9451 24.8399 0 0 255
48.7478 20.3631 -0.192654 0 0 255
60.1631 15.1608 23.06 0 0 255
-68.9837 30.5218 -42.2767 0 0 255
53.0745 18.2473 8.65289 0 0 255
-68.6985 30.5681 -42.8526 0 0 255
-50.5952 31.8761 -50.8354 0 0 255
-41.7991 33.0482 -56.5687 0 0 255
-29.5696 34.6372 -64.254 0 0 255
57.7262 15.822 18.3374 0 0 255
57.7498 15.835 18.2974 0 0 255
-69.0706 30.1867 -42.8452 0 0 255
49.3053 19.4112 0.357131 0 0 255
-73.5288 28.4003 -37.0152 0 0 255
-78.7437 27.5822 -33.6265 0 0 255
-60.4596 29.6428 -45.3176 0 0 255
61.5697 13.4185 26.0648 0 0 255
56.0142 15.9316 14.0954 0 0 255
56.0708 15.9432 14.0947 0 0 255
-36.2169 32.2073 -61.3744 0 0 255
2.40234 32.9599 -65.7543 0 0 255
53.534 17.0009 8.25491 0 0 255
51.4651 17.3894 4.21988 0 0 255
-33.9549 31.5881 -61.9193 0 0 255
-79.3189 25.4416 -33.7862 0 0 255
43.8987 31.0358 -65.0522 0 0 255
48.8017 25.6724 -40.3426 0 0 255
51.1178 16.4691 2.88255 0 0 255
53.7713 15.4405 8.04705 0 0 255
-57.2606 27.2689 -47.9133 0 0 255
-67.3497 27.1225 -46.3824 0 0 255
4.01764 29.5286 -62.6362 0 0 255
59.0592 12.8853 19.2306 0 0 255
58.9817 12.9163 19.3389 0 0 255
62.9765 11.0791 27.7345 0 0 255
60.0373 12.6939 19.1065 0 0 255
49.435 24.2263 -38.9898 0 0 255
49.4107 24.2972 -38.9529 0 0 255
-74.4797 25.12 -39.0677 0 0 255
-38.7835 28.6535 -60.6845 0 0 255
-73.6155 24.8489 -39.1781 0 0 255
59.5614 12.1687 20.0127 0 0 255
59.3267 12.1203 19.7178 0 0 255
-69.2229 25.999 -47.5769 0 0 255
59.7904 11.8725 19.8895 0 0 255
30.152 27.9932 -62.9994 0 0 255
-61.5917 25.5362 -48.0178 0 0 255
51.7884 22.3007 -34.0599 0 0 255
-78.3716 23.6506 -37.5401 0 0 255
54.104 13.7805 8.05636 0 0 255
-75.2484 23.7705 -40.5247 0 0 255
49.7816 15.1861 -1.3935 0 0 255
50.263 15.1229 -1.39752 0 0 255
50.2793 15.0752 -1.35006 0 0 255
54.4731 13.2107 8.24628 0 0 255
54.3913 13.1565 8.44933 0 0 255
50.0951 14.7811 -1.61497 0 0 255
59.4069 11.0034 18.441 0 0 255
3.09559 24.5809 -57.0405 0 0 255
55.2541 12.3324 9.31372 0 0 255
-33.0548 24.3681 -55.6668 0 0 255
61.1744 9.72373 21.9719 0 0 255
-30.7928 23.8316 -54.6115 0 0 255
59.2248 10.2909 18.082 0 0 255
62.654 8.64338 26.0423 0 0 255
62.8846 8.56683 26.4682 0 0 255
54.5986 11.7669 7.201 0 0 255
62.9083 8.34326 26.3591 0 0 255
52.3774 12.4808 2.97296 0 0 255
-13.6376 22.352 -54.0853 0 0 255
59.1739 9.72839 17.5401 0 0 255
32.3326 22.2553 -55.5082 0 0 255
-79.0013 20.2741 -39.3077 0 0 255
59.3127 9.31976 16.951 0 0 255
-10.5425 21.6108 -53.2144 0 0 255
-76.5507 20.1311 -40.1194 0 0 255
-15.5517 21.4495 -52.8817 0 0 255
-2.21402 21.2388 -52.0594 0 0 255
51.4807 11.7723 1.81345 0 0 255
-38.443 21.0919 -51.2532 0 0 255
54.645 17.2094 -30.2541 0 0 255
53.1357 11.2356 3.33066 0 0 255
36.971 20.7254 -54.2843 0 0 255
53.1167 10.8144 3.5272 0 0 255
-13.8585 19.6512 -51.1089 0 0 255
63.8761 6.60795 27.0049 0 0 255
-63.9547 20.0433 -51.1759 0 0 255
-17.6608 18.3502 -49.0397 0 0 255
-14.5843 18.4972 -50.1106 0 0 255
-9.11033 18.4269 -49.935 0 0 255
-10.7917 18.3621 -50.0331 0 0 255
61.071 7.07462 20.2569 0 0 255
53.8853 15.3373 -31.4268 0 0 255
54.8339 9.2018 6.13645 0 0 255
57.904 8.10905 13.1954 0 0 255
57.9681 8.11996 13.1506 0 0 255
57.2034 8.13402 11.4433 0 0 255
57.2097 8.13063 11.4378 0 0 255
-54.9357 18.1668 -49.2575 0 0 255
-72.9926 18.2637 -47.9841 0 0 255
49.6926 10.1217 -5.47363 0 0 255
-9.42364 16.0099 -47.4282 0 0 255
52.0888 8.92024 -0.764379 0 0 255
53.0145 8.68359 0.944375 0 0 255
-12.1308 15.8565 -47.4326 0 0 255
-51.7502 15.2302 -45.9511 0 0 255
53.3303 7.87669 0.534382 0 0 255
-14.2322 14.5557 -45.5031 0 0 255
56.2113 6.4677 7.32063 0 0 255
-29.3935 13.8119 -45.3226 0 0 255
63.5646 3.76636 23.7941 0 0 255
58.6648 5.09449 13.2003 0 0 255
-10.6878 12.8805 -44.1152 0 0 255
58.9434 4.71907 13.1248 0 0 255
-11.5568 12.1997 -42.8494 0 0 255
-2.67614 3.01099 20.8358 0 0 255
0.210161 2.83207 19.7691 0 0 255
-66.1648 11.9008 -42.2384 0 0 255
53.1921 5.57131 -0.470055 0 0 255
53.5732 5.25907 0.211267 0 0 255
51.7259 5.73979 -4.56177 0 0 255
-7.6719 2.25979 19.3366 0 0 255
52.452 5.07967 -2.59368 0 0 255
56.9284 3.69836 7.07724 0 0 255
56.9696 3.70939 6.97745 0 0 255
52.649 4.71255 -2.693 0 0 255
59.4702 2.87652 12.1475 0 0 255
-49.2651 9.50354 -39.3789 0 0 255
62.9971 1.64778 21.1872 0 0 255
54.4766 3.96526 1.592 0 0 255
49.2886 5.39008 -10.74 0 0 255
54.0548 4.05975 0.565917 0 0 255
-20.6007 8.752 -40.2733 0 0 255
58.2676 2.47584 9.683 0 0 255
58.3354 2.17513 9.33003 0 0 255
57.7585 2.20835 7.94396 0 0 255
64.7011 0.277384 24.3027 0 0 255
58.0331 2.13425 8.17096 0 0 255
57.9097 2.08891 8.39868 0 0 255
58.8338 1.81196 10.7184 0 0 255
58.3988 1.7467 9.39228 0 0 255
58.3988 1.7467 9.39228 0 0 255
61.2065 1.14032 14.1579 0 0 255
61.2568 1.12908 14.1034 0 0 255
63.0062 0.45866 20.0009 0 0 255
63.0062 0.45866 20.0009 0 0 255
64.5001 -0.00724478 23.6397 0 0 255
63.2551 0.219759 19.3328 0 0 255
62.8437 0.150992 19.9676 0 0 255
-14.8389 2.03996 1.27833 0 0 255
55.2286 1.8124 1.66461 0 0 255
58.2903 0.954467 8.5861 0 0 255
62.812 -0.258735 19.5759 0 0 255
-34.7394 5.53849 -35.1741 0 0 255
63.3092 -0.504919 20.4627 0 0 255
56.4611 1.07142 4.99388 0 0 255
-15.813 1.20936 2.12465 0 0 255
62.826 -0.507933 19.3276 0 0 255
56.4538 1.00403 4.23812 0 0 255
56.4538 1.00403 4.23812 0 0 255
2.02854 -1.46175 25.3366 0 0 255
60.1394 0.107247 12.7374 0 0 255
59.177 0.269405 10.3025 0 0 255
63.6945 -0.838546 20.8251 0 0 255
62.1997 -0.569331 17.9695 0 0 255
62.1344 -0.544248 17.3392 0 0 255
63.0222 -0.83191 19.3355 0 0 255
63.0228 -0.816878 19.323 0 0 255
60.4115 -0.238435 13.0918 0 0 255
-98.6851 5.67334 -33.9589 0 0 255
59.7594 -0.226107 11.3379 0 0 255
59.7594 -0.226107 11.3379 0 0 255
48.4749 2.39105 -15.5992 0 0 255
63.1312 -1.20183 19.4451 0 0 255
60.7949 -0.709962 13.6616 0 0 255
-17.1374 0.243774 3.43826 0 0 255
56.9537 0.0886479 4.63024 0 0 255
62.7543 -1.35696 18.5722 0 0 255
63.5248 -1.56823 18.8351 0 0 255
53.2963 0.50872 -4.06406 0 0 255
62.7725 -1.69721 18.285 0 0 255
60.1471 -1.06774 11.3672 0 0 255
60.0385 -1.14199 11.5435 0 0 255
61.7038 -1.39274 11.6913 0 0 255
59.6416 -1.2064 10.2182 0 0 255
59.6775 -1.21129 10.1935 0 0 255
-39.7758 2.8413 -32.6669 0 0 255
61.7854 -1.79935 15.2007 0 0 255
62.4472 -2.09325 17.7117 0 0 255
60.321 -1.64501 11.5447 0 0 255
-19.8026 -1.08261 4.89864 0 0 255
62.4781 -2.22323 16.7848 0 0 255
55.1697 -0.786409 -0.647891 0 0 255
62.2081 -2.34416 15.7862 0 0 255
62.1307 -2.37395 15.895 0 0 255
62.2767 -2.52498 16.9751 0 0 255
61.049 -2.21821 12.8643 0 0 255
61.0481 -2.2189 12.8661 0 0 255
63.3861 -2.75677 18.7988 0 0 255
63.3861 -2.75677 18.7988 0 0 255
-65.38 1.79281 -28.9628 0 0 255
-19.5871 -1.83928 5.70391 0 0 255
55.3857 -1.39265 -0.382526 0 0 255
44.4591 1.30423 -33.4088 0 0 255
55.631 -1.57356 -0.038586 0 0 255
65.3523 -3.62613 23.319 0 0 255
60.6759 -2.76169 11.6727 0 0 255
-42.4301 0.988983 -30.1812 0 0 255
55.5584 -1.81617 -0.3621 0 0 255
-8.71601 -4.1833 26.7432 0 0 255
52.7061 -1.32705 -7.43759 0 0 255
63.2828 -3.49918 18.2463 0 0 255
62.7479 -3.52435 16.6984 0 0 255
55.8754 -2.3885 -0.136017 0 0 255
63.4195 -3.89541 17.989 0 0 255
63.3937 -3.88486 18.0178 0 0 255
-3.61241 -4.98431 29.6319 0 0 255
65.413 -4.28741 21.8759 0 0 255
56.1375 -2.67803 0.383924 0 0 255
61.6691 -3.86552 13.376 0 0 255
55.9414 -3.03122 -0.493034 0 0 255
62.8623 -4.44114 15.9065 0 0 255
51.298 -2.55906 -12.1231 0 0 255
-16.716 -4.26579 12.7605 0 0 255
62.8073 -4.59072 15.5853 0 0 255
-61.7122 -0.948653 -28.4829 0 0 255
49.0174 -2.79646 -17.2827 0 0 255
64.8864 -5.35002 20.613 0 0 255
-16.9044 -4.80996 13.4586 0 0 255
59.9519 -4.70553 8.18722 0 0 255
60.9061 -4.85087 10.8577 0 0 255
62.7348 -5.44385 14.7199 0 0 255
62.6736 -5.46095 14.803 0 0 255
7.43156 -6.56018 30.1396 0 0 255
49.7892 -3.83224 -16.6936 0 0 255
56.3767 -4.93557 -0.680119 0 0 255
60.1477 -5.57326 7.78681 0 0 255
64.8327 -6.61874 19.8668 0 0 255
58.5311 -5.74155 3.95899 0 0 255
59.6349 -5.90242 6.58186 0 0 255
66.49 -6.95473 22.6746 0 0 255
-21.5664 -6.03317 10.7978 0 0 255
3.79705 -7.44 31.6117 0 0 255
61.2602 -6.24649 10.3256 0 0 255
61.2649 -6.25388 10.3316 0 0 255
-14.6369 -7.03492 23.3572 0 0 255
63.0444 -6.55354 13.575 0 0 255
66.3417 -7.36939 22.6104 0 0 255
-1.80782 -7.83709 31.7302 0 0 255
59.6074 -6.5375 5.46699 0 0 255
-0.388206 -7.88622 31.7968 0 0 255
3.51422 -8.07338 32.0073 0 0 255
57.8069 -6.64908 1.29886 0 0 255
-41.9422 -4.8673 -25.1926 0 0 255
-64.7917 -4.71204 -24.9253 0 0 255
63.2373 -7.49034 14.8499 0 0 255
-11.9532 -8.05791 26.8462 0 0 255
-0.172557 -8.49836 32.2052 0 0 255
-0.184106 -8.50085 32.3061 0 0 255
-6.04386 -8.62233 30.8652 0 0 255
10.7959 -8.67965 29.5325 0 0 255
48.3332 -6.37279 -21.8319 0 0 255
-51.3211 -6.18964 -22.8316 0 0 255
62.1359 -8.27063 11.088 0 0 255
5.71912 -9.279 31.9887 0 0 255
50.4257 -7.24078 -17.6992 0 0 255
4.40314 -9.3826 32.1198 0 0 255
48.7155 -7.58181 -23.129 0 0 255
57.8311 -8.61279 -0.307881 0 0 255
60.2059 -8.91891 6.52554 0 0 255
25.7487 -9.09768 11.7065 0 0 255
60.7303 -8.98453 8.31228 0 0 255
59.3691 -8.9433 3.3795 0 0 255
59.5305 -8.97351 3.83829 0 0 255
49.5838 -8.02633 -23.4269 0 0 255
49.023 -8.12292 -21.7826 0 0 255
57.9639 -9.05555 -0.237626 0 0 255
60.2237 -9.26091 5.6769 0 0 255
-24.5995 -9.22239 14.092 0 0 255
59.809 -9.22516 4.23746 0 0 255
66.3535 -9.88183 20.6717 0 0 255
-11.0717 -9.89561 28.3524 0 0 255
-63.8156 -7.73405 -21.1736 0 0 255
59.4308 -9.4752 2.37943 0 0 255
59.8772 -9.6698 4.14217 0 0 255
60.1069 -9.65103 4.79608 0 0 255
64.8085 -10.2452 16.606 0 0 255
66.8682 -10.5047 21.6581 0 0 255
59.5926 -9.90666 3.0579 0 0 255
60.5179 -10.0179 5.60401 0 0 255
49.503 -9.10682 -22.3229 0 0 255
61.7768 -10.1035 8.58078 0 0 255
66.3627 -10.5345 20.622 0 0 255
58.1405 -9.91513 -0.586795 0 0 255
60.2952 -10.0559 4.89701 0 0 255
64.6461 -10.4452 16.4171 0 0 255
64.6461 -10.4452 16.4171 0 0 255
61.3119 -10.533 7.31137 0 0 255
62.8844 -10.7739 11.6782 0 0 255
-22.9167 -10.5248 15.4848 0 0 255
58.0296 -10.5477 -1.11589 0 0 255
58.0735 -10.5409 -1.22146 0 0 255
59.9893 -10.6636 3.5972 0 0 255
66.7828 -11.2461 20.811 0 0 255
52.6306 -10.3394 -14.1515 0 0 255
-44.4579 -9.77246 -18.7354 0 0 255
-6.27853 -11.3051 31.6373 0 0 255
61.1572 -11.0865 5.86248 0 0 255
-47.1455 -9.99541 -18.4701 0 0 255
60.7878 -11.121 4.52139 0 0 255
-49.6521 -10.1365 -18.262 0 0 255
61.421 -11.3116 6.89425 0 0 255
61.4144 -11.3096 6.89578 0 0 255
-47.5169 -10.1488 -18.0858 0 0 255
-1.72042 -11.6419 32.9152 0 0 255
64.0778 -11.5389 13.4724 0 0 255
57.2363 -11.4402 -3.9159 0 0 255
-47.3912 -10.5812 -17.7675 0 0 255
-47.4005 -10.5741 -17.7141 0 0 255
51.1348 -11.1775 -19.8446 0 0 255
59.1697 -11.7931 0.250735 0 0 255
61.4936 -12.0737 7.00718 0 0 255
66.0932 -12.3351 18.4043 0 0 255
-16.3027 -11.9747 22.874 0 0 255
59.3736 -12.1432 0.724846 0 0 255
-16.9035 -12.1787 21.6623 0 0 255
-43.6949 -11.5174 -16.6396 0 0 255
-44.4421 -11.73 -16.4473 0 0 255
-47.7359 -11.7467 -16.3616 0 0 255
66.4605 -12.8937 19.2068 0 0 255
66.5455 -12.8776 19.1697 0 0 255
54.9982 -12.5745 -10.1404 0 0 255
66.3856 -12.9301 18.767 0 0 255
64.8479 -12.9982 15.2161 0 0 255
-17.526 -12.6153 22.1143 0 0 255
59.4552 -12.8133 0.447379 0 0 255
59.3515 -12.8574 0.61071 0 0 255
67.0923 -13.2328 20.1697 0 0 255
2.91548 -13.1001 33.2819 0 0 255
53.3231 -13.038 -14.5812 0 0 255
20.8741 -13.2802 20.6928 0 0 255
60.9122 -13.3389 3.73201 0 0 255
-58.2245 -12.6097 -15.3382 0 0 255
59.1752 -13.5199 -0.479464 0 0 255
-2.11438 -13.4827 33.0025 0 0 255
59.8671 -13.8396 0.70613 0 0 255
-24.6546 -13.3883 18.6448 0 0 255
-50.5516 -13.1585 -15.5095 0 0 255
-18.8654 -13.577 23.1235 0 0 255
59.0846 -14.1099 -0.945003 0 0 255
12.0213 -14.1506 30.1426 0 0 255
59.5803 -14.4842 -0.657626 0 0 255
-50.143 -13.8539 -14.2136 0 0 255
-14.8159 -14.1127 25.3931 0 0 255
-14.8006 -14.1258 25.3508 0 0 255
66.7833 -14.7963 18.4259 0 0 255
-4.79956 -14.5875 32.4399 0 0 255
56.7991 -15.1912 -9.1691 0 0 255
-17.5774 -14.6069 24.2836 0 0 255
8.816 -15.0054 31.8119 0 0 255
60.8955 -15.5858 2.04421 0 0 255
-1.38162 -14.9489 33.3286 0 0 255
61.4389 -15.6856 3.30625 0 0 255
60.622 -15.7978 1.63234 0 0 255
59.3428 -15.8883 -2.1778 0 0 255
59.3183 -15.8899 -2.13239 0 0 255
62.0332 -15.9027 4.47225 0 0 255
67.273 -15.9375 18.9077 0 0 255
66.827 -16.0114 18.1998 0 0 255
67.0866 -16.113 18.3556 0 0 255
66.9879 -16.1087 18.4997 0 0 255
58.6418 -16.5322 -3.97449 0 0 255
-15.7429 -15.5763 25.4942 0 0 255
64.1384 -16.393 9.74149 0 0 255
64.1368 -16.3923 9.73877 0 0 255
-36.4894 -15.9705 -12.1059 0 0 255
-36.4798 -15.9772 -12.0909 0 0 255
-4.7168 -15.6399 32.5435 0 0 255
27.7351 -16.1612 19.1264 0 0 255
60.392 -16.9584 -0.0369875 0 0 255
-60.5679 -16.3407 -12.4726 0 0 255
-52.3532 -16.3627 -11.757 0 0 255
66.6378 -16.8568 16.5334 0 0 255
0.488592 -16.079 33.4097 0 0 255
59.4538 -17.4089 -3.31546 0 0 255
62.1051 -17.3345 3.64366 0 0 255
63.8627 -17.2525 7.90174 0 0 255
-10.0132 -16.2931 29.8451 0 0 255
-59.2474 -16.9029 -10.9575 0 0 255
-24.8002 -16.4647 22.0168 0 0 255
-13.3782 -16.3787 26.9501 0 0 255
-48.4663 -17.7138 -10.0442 0 0 255
67.9469 -17.8898 18.7145 0 0 255
61.3521 -18.4202 0.812787 0 0 255
-23.9431 -17.1201 22.7165 0 0 255
-58.5481 -17.851 -9.82398 0 0 255
-48.0961 -18.2959 -9.42136 0 0 255
-55.3281 -18.2448 -9.74755 0 0 255
-9.6238 -17.4054 30.1042 0 0 255
-12.8108 -17.4867 27.5558 0 0 255
59.933 -19.1159 -3.31159 0 0 255
61.1648 -19.0132 -0.290306 0 0 255
-78.8002 -18.443 -8.56357 0 0 255
-52.5915 -18.6787 -8.96404 0 0 255
-22.3259 -17.7819 23.5197 0 0 255
-17.482 -17.7541 26.2654 0 0 255
63.9132 -19.1364 6.94551 0 0 255
63.8978 -19.1207 6.95529 0 0 255
13.6851 -17.9204 29.113 0 0 255
65.1647 -19.1425 10.6396 0 0 255
-8.10809 -17.963 30.7593 0 0 255
65.7532 -19.3716 13.076 0 0 255
-52.8591 -19.2447 -8.38209 0 0 255
-2.05781 -18.1132 33.013 0 0 255
68.1661 -19.4049 18.2683 0 0 255
-49.2259 -19.3957 -8.56825 0 0 255
-49.2259 -19.3957 -8.56825 0 0 255
22.256 -18.7845 22.5954 0 0 255
60.64 -20.0768 -2.46381 0 0 255
65.0346 -19.8664 6.53752 0 0 255
13.6033 -18.5814 28.2993 0 0 255
64.3012 -19.8797 7.19543 0 0 255
-53.809 -19.6127 -8.54957 0 0 255
67.8138 -19.6399 17.0642 0 0 255
-1.66625 -18.3884 33.038 0 0 255
60.6705 -20.52 -2.43883 0 0 255
67.5025 -20.3735 15.9187 0 0 255
-25.5322 -19.4652 18.2335 0 0 255
17.1074 -19.4696 27.5064 0 0 255
68.5847 -20.5106 18.4213 0 0 255
-8.00043 -19.6452 30.468 0 0 255
-51.9756 -21.3757 -6.33058 0 0 255
60.3295 -22.3423 -4.38317 0 0 255
61.3999 -22.2666 -1.93006 0 0 255
-43.2158 -21.6782 -6.28069 0 0 255
61.8508 -22.3805 -1.02266 0 0 255
-1.39819 -19.9559 32.5198 0 0 255
3.04634 -20.0325 32.5986 0 0 255
7.83741 -20.2919 31.3123 0 0 255
-52.0449 -21.9292 -5.75511 0 0 255
-56.8961 -22.1861 -5.57726 0 0 255
-57.51 -22.2634 -5.62921 0 0 255
64.4133 -22.704 7.07525 0 0 255
0.781269 -20.5844 32.5418 0 0 255
-48.9661 -22.4929 -4.55367 0 0 255
-5.1325 -20.6719 31.5474 0 0 255
23.783 -21.4967 25.0518 0 0 255
61.537 -23.5776 -2.6471 0 0 255
-53.6084 -22.8808 -4.51881 0 0 255
8.9374 -21.053 30.8474 0 0 255
63.6182 -23.4984 2.22986 0 0 255
23.5223 -21.7863 25.5354 0 0 255
14.5665 -21.4085 29.839 0 0 255
15.3482 -21.4474 29.743 0 0 255
0.796999 -21.4099 32.2399 0 0 255
12.6344 -21.6658 30.2637 0 0 255
23.495 -22.1035 25.6601 0 0 255
9.0477 -21.8551 30.9662 0 0 255
65.8183 -24.3558 7.139 0 0 255
-11.7397 -21.8111 30.9511 0 0 255
-10.8206 -22.2254 31.5262 0 0 255
-1.8058 -22.6493 32.2839 0 0 255
-39.1874 -25.223 -2.37795 0 0 255
-18.2436 -23.015 28.7734 0 0 255
-21.2065 -23.2339 28.9499 0 0 255
9.16573 -23.461 32.233 0 0 255
62.1299 -27.2314 -3.93443 0 0 255
9.57614 -23.8407 32.6921 0 0 255
69.9805 -26.3385 16.2297 0 0 255
-1.2838 -24.0184 33.825 0 0 255
-1.58852 -24.2012 33.9389 0 0 255
67.9583 -27.3414 11.3651 0 0 255
-17.6451 -24.4578 30.2025 0 0 255
2.20376 -24.4314 33.745 0 0 255
65.4835 -28.1593 4.2473 0 0 255
63.7954 -28.8101 -0.636536 0 0 255
-14.6591 -24.8074 30.7625 0 0 255
-20.4486 -25.2513 26.3488 0 0 255
20.5052 -25.5857 29.1167 0 0 255
67.1106 -28.424 7.95189 0 0 255
-6.84483 -25.065 32.2535 0 0 255
-10.8089 -25.1247 31.1661 0 0 255
64.1635 -29.2637 1.66087 0 0 255
69.5123 -27.8688 16.7283 0 0 255
69.5123 -27.8688 16.7283 0 0 255
68.2626 -28.9044 12.5458 0 0 255
65.6559 -29.757 5.6926 0 0 255
67.4343 -29.6034 8.68281 0 0 255
67.4343 -29.6034 8.68281 0 0 255
-14.5569 -26.0661 32.1778 0 0 255
65.6928 -30.5352 2.05535 0 0 255
66.8271 -30.1436 6.03738 0 0 255
-7.31007 -26.1995 31.8046 0 0 255
65.5903 -30.5258 2.71939 0 0 255
-2.27834 -26.3391 33.236 0 0 255
6.13542 -26.4815 32.7557 0 0 255
66.126 -30.9454 2.28567 0 0 255
65.8299 -30.9299 2.54995 0 0 255
66.1294 -30.9604 2.3211 0 0 255
-5.29941 -26.642 32.779 0 0 255
68.8512 -30.2923 12.8468 0 0 255
-16.8834 -27.1966 28.5597 0 0 255
6.3822 -26.9967 32.5483 0 0 255
-50.7722 -30.1235 2.984 0 0 255
15.6904 -27.4516 32.0416 0 0 255
69.3529 -30.7323 12.1967 0 0 255
15.7192 -27.6876 32.3233 0 0 255
15.7284 -27.6886 32.2687 0 0 255
-16.084 -27.7738 29.0054 0 0 255
66.9576 -31.8214 7.67295 0 0 255
-16.7375 -28.0623 28.0616 0 0 255
-13.5144 -27.6252 32.2486 0 0 255
14.6246 -27.9947 32.5812 0 0 255
17.7794 -28.286 32.6741 0 0 255
-8.09954 -27.8715 33.76 0 0 255
15.0507 -28.412 32.3212 0 0 255
66.7052 -32.9757 5.96371 0 0 255
66.7278 -33.1679 3.91374 0 0 255
66.7763 -33.2028 3.98878 0 0 255
-4.91102 -28.1448 33.8523 0 0 255
67.6011 -33.4194 5.64135 0 0 255
70.3731 -32.7079 12.5338 0 0 255
-1.04672 -28.6023 34.276 0 0 255
9.97056 -28.8065 33.904 0 0 255
-1.70962 -28.6054 34.2681 0 0 255
9.3236 -28.8936 34.026 0 0 255
70.7073 -33.1306 13.0857 0 0 255
10.5849 -29.1501 34.2173 0 0 255
-8.00063 -28.896 34.7048 0 0 255
-9.88783 -29.287 33.221 0 0 255
-3.56124 -29.1634 34.9812 0 0 255
-5.18717 -29.1344 35.1062 0 0 255
-0.589645 -29.24 34.9785 0 0 255
-0.602677 -29.2435 34.9368 0 0 255
-4.61754 -29.8349 35.6079 0 0 255
-49.2364 -33.9637 7.23081 0 0 255
2.86107 -30.3443 35.5494 0 0 255
0.0952256 -30.3859 35.6376 0 0 255
3.3451 -30.7436 35.1865 0 0 255
5.84119 -31.0687 34.5903 0 0 255
-10.7514 -31.4682 30.8207 0 0 255
-8.95042 -31.5078 31.6343 0 0 255
2.44067 -31.3902 34.5341 0 0 255
70.2994 -36.7418 10.0223 0 0 255
0.472505 -31.3513 34.9935 0 0 255
-17.7626 -33.1376 23.5449 0 0 255
-20.8216 -33.8801 19.584 0 0 255
-9.40188 -32.1285 30.6691 0 0 255
60.93 -38.6022 9.64592 0 0 255
-8.42442 -35.6881 28.0854 0 0 255
-38.0888 -39.0929 12.3434 0 0 255
47.3427 -40.8927 11.2259 0 0 255
17.2756 -37.9724 23.0902 0 0 255
17.1555 -37.8924 23.3898 0 0 255
11.5435 -37.8222 26.2664 0 0 255
11.3018 -38.2235 26.0909 0 0 255
64.3249 -42.1906 14.0971 0 0 255
38.0724 -42.6129 13.6498 0 0 255
36.5529 -42.8804 15.6301 0 0 255
3.22424 -39.4453 27.997 0 0 255
3.72931 -39.9063 27.0172 0 0 255
5.08319 -40.4722 26.1726 0 0 255
19.4742 -41.8995 23.6805 0 0 255
5.39653 -41.193 25.5774 0 0 255
56.9915 -44.894 16.8916 0 0 255
-3.10421 -41.215 27.7095 0 0 255
54.2545 -45.8474 17.8142 0 0 255
67.8014 -46.4768 18.9384 0 0 255
53.7269 -46.3146 18.4316 0 0 255
53.762 -46.4105 18.4543 0 0 255
32.9069 -46.1828 17.8524 0 0 255
59.1856 -46.8715 19.492 0 0 255
60.8046 -46.9424 19.644 0 0 255
54.996 -46.9954 19.2533 0 0 255
50.8542 -46.9484 19.6204 0 0 255
-43.8373 -46.0905 19.3852 0 0 255
57.2516 -47.8148 20.4645 0 0 255
-43.3552 -46.2525 20.4234 0 0 255
52.6054 -47.9205 20.4162 0 0 255
16.3631 -46.7262 22.3626 0 0 255
-10.9821 -45.8307 24.5565 0 0 255
52.0304 -48.4744 21.0233 0 0 255
32.1962 -48.6394 20.5362 0 0 255
-8.61352 -46.9126 24.2651 0 0 255
49.9572 -49.2 21.8287 0 0 255
1.05202 -47.043 26.5123 0 0 255
2.76713 -48.0827 25.575 0 0 255
-26.6662 -48.8667 23.086 0 0 255
44.0651 -50.2856 23.365 0 0 255
42.8294 -50.6846 22.7541 0 0 255
62.6903 -51.0129 23.9885 0 0 255
43.6488 -50.9651 22.9009 0 0 255
55.422 -51.0209 23.9855 0 0 255
25.1603 -50.9905 23.2683 0 0 255
25.1288 -50.9625 23.3284 0 0 255
-25.84 -50.3369 24.585 0 0 255
-32.8083 -50.4005 24.5765 0 0 255
-26.4698 -50.6656 24.859 0 0 255
-21.4789 -51.3393 25.4869 0 0 255
-19.8409 -51.5979 26.0253 0 0 255
36.0423 -53.7939 26.1286 0 0 255
49.2192 -53.995 26.9799 0 0 255
56.5398 -54.1712 27.2864 0 0 255
48.6931 -54.4818 26.3645 0 0 255
31.8089 -54.0047 26.6456 0 0 255
60.7918 -54.5622 28.1426 0 0 255
-19.0259 -52.9386 27.2004 0 0 255
50.9009 -54.632 28.1061 0 0 255
50.9009 -54.632 28.1061 0 0 255
-29.269 -53.1376 27.6858 0 0 255
-14.6387 -53.4555 27.7483 0 0 255
-23.187 -54.0108 28.3967 0 0 255
33.2146 -55.6749 28.0325 0 0 255
51.9501 -55.9679 29.6111 0 0 255
-35.588 -54.7303 28.6993 0 0 255
-18.3228 -54.6705 28.8618 0 0 255
-35.1266 -54.6915 29.2273 0 0 255
-31.7858 -54.7688 29.1217 0 0 255
-16.2257 -54.9262 28.8709 0 0 255
22.3082 -55.7677 28.9171 0 0 255
-19.3972 -55.3632 29.5688 0 0 255
-6.307 -55.7614 29.74 0 0 255
49.9133 -57.0385 30.8611 0 0 255
-6.0177 -55.9105 29.6509 0 0 255
37.0986 -57.1746 30.4639 0 0 255
-4.14903 -55.9951 30.0582 0 0 255
0.814223 -56.0966 30.6943 0 0 255
-12.5737 -56.081 30.3332 0 0 255
2.19079 -56.3999 30.0921 0 0 255
